ply
format ascii 1.0
element vertex 1217
property float x
property float y
property float z
property uint8 red
property uint8 green
property uint8 blue
end_header
0.606987 0.799773 -8.050117 132 134 147
1.047942 1.298203 -7.500030 138 149 167
4.960549 6.181173 -2.651722 76 85 100
0.664780 0.762107 -8.075326 99 101 113
0.664780 0.762107 -8.075326 99 101 113
5.009879 5.924581 -2.902724 89 97 110
0.930760 0.491395 -8.299506 141 144 159
5.112199 5.661972 -3.139359 111 122 138
1.206712 0.556329 -8.157133 93 99 113
1.501688 0.293052 -8.387618 90 98 111
0.730476 3.020351 -1.409574 160 179 160
-0.006448 1.921332 -2.632562 224 232 252
1.879422 -0.142608 -8.816794 120 126 138
1.930711 -0.223816 -8.887074 122 129 145
2.342197 -0.314335 -8.970214 83 87 96
2.481760 -0.116453 -8.676340 87 94 102
2.352031 -0.474671 -9.056779 116 122 136
2.753681 -0.060197 -8.644554 122 125 140
2.865644 -0.097538 -8.645266 87 93 105
1.373607 2.505767 -2.143524 127 111 166
5.536285 0.867887 -8.417413 0 0 0
1.029503 1.942475 -2.269976 127 102 192
1.239076 1.709473 -2.567694 190 221 145
0.568421 1.220766 -2.874182 103 129 84
4.641817 -1.312754 -9.760383 109 116 126
7.811446 1.906989 -6.428566 98 104 120
6.140844 -0.377520 -8.850781 0 0 0
5.929406 -0.605289 -8.904343 109 115 129
8.516218 1.257492 -7.119135 95 102 108
13.002722 5.749925 -2.623344 101 104 113
7.396404 -0.227769 -8.438262 107 117 127
12.975006 6.153836 -1.837916 0 0 0
7.080643 -1.217433 -9.448683 88 97 106
9.934290 1.590249 -6.649720 114 120 134
6.943249 -1.883414 -10.150643 15 14 12
7.002271 -1.901045 -10.211082 15 14 12
6.938710 -2.045301 -10.285407 109 115 127
6.683772 -2.829108 -10.785143 133 137 148
9.691480 -0.219871 -8.362378 53 54 58
9.691480 -0.219871 -8.362378 53 54 58
7.806007 -2.733793 -10.879932 97 104 112
7.926703 -2.446654 -10.499331 104 107 114
7.918529 -2.747957 -10.771369 90 95 101
8.159539 -2.849427 -11.022049 90 95 101
9.086871 -2.866801 -10.885438 80 83 90
14.627384 2.062045 -5.794313 76 80 91
11.296601 -2.313138 -10.233460 109 112 117
0.475408 6.165356 -2.977451 191 198 226
-1.118521 3.902676 -5.206958 122 127 146
-1.361451 3.549459 -5.548552 118 129 146
-1.100429 3.870940 -5.229551 94 99 118
-0.207984 4.929258 -4.184204 101 105 117
-1.372278 3.346371 -5.754210 138 141 158
-1.706890 2.849195 -6.294711 122 125 140
-1.473219 3.152481 -5.957330 134 137 152
-1.008981 3.742583 -5.487618 0 0 0
-1.381762 3.243215 -5.825022 103 106 123
0.004657 5.009776 -4.127711 71 77 91
-1.200356 3.361484 -5.737748 109 114 133
-0.959520 3.662247 -5.419944 90 95 114
-1.220322 3.125688 -5.948997 122 125 144
1.051271 6.100860 -3.000807 100 107 125
0.014232 4.622355 -4.449723 76 80 91
1.098474 6.019353 -3.076058 142 148 164
1.239760 6.204191 -2.840167 95 100 119
-1.054458 3.079751 -5.973196 84 90 104
1.905516 6.916977 -2.157894 105 112 131
-0.781111 3.341316 -5.668873 0 0 0
-1.196329 2.652149 -6.402175 83 88 102
0.030427 4.216833 -4.704940 134 140 136
-0.976985 2.665224 -6.362989 95 101 117
-0.910958 2.446321 -6.588316 84 90 104
-0.868658 2.481539 -6.532958 112 115 132
0.768447 4.665176 -4.274532 90 94 103
-0.916006 2.408581 -6.541985 84 90 104
-0.789607 2.520518 -6.795050 0 0 0
0.838375 4.650159 -4.369864 86 89 96
0.838489 4.650259 -4.370290 86 89 96
1.746246 5.666553 -3.347879 129 136 155
2.942454 7.037138 -1.923713 0 0 0
-0.489694 2.472650 -6.495969 92 98 114
-0.374325 2.490101 -6.478289 119 125 141
1.730076 5.247599 -3.746843 108 114 130
1.283383 4.544880 -4.429856 98 102 114
1.898872 5.008418 -4.031301 106 116 128
1.822052 4.900027 -4.077366 110 116 130
1.849135 4.861452 -4.112633 112 120 133
0.473110 3.057320 -5.893271 87 91 107
1.752325 4.705277 -4.253112 66 72 86
2.909202 6.171718 -2.777312 116 125 146
-0.131645 2.212246 -6.743445 95 100 119
0.257885 2.673711 -6.279855 0 0 0
1.010946 3.597215 -5.329418 72 78 92
-1.084655 2.703893 -2.118795 202 197 246
-0.966661 2.841427 -1.908734 178 160 238
2.040256 4.817568 -4.143745 75 81 97
-1.100960 2.658498 -2.099049 173 153 215
3.438277 6.406075 -2.569490 146 151 170
-1.066635 2.631922 -1.993868 187 114 213
2.280417 4.827358 -4.113904 139 146 162
3.271405 6.024879 -2.904690 130 135 154
-0.284003 1.431453 -7.465611 87 93 109
3.385911 6.116637 -2.825491 126 134 147
-0.250010 1.399781 -7.533505 103 109 125
3.734851 6.438728 -2.501319 104 111 129
3.434625 5.824461 -3.114008 117 124 142
-0.009612 1.377022 -7.540757 134 137 155
3.426632 5.720571 -3.190201 104 113 130
1.435859 3.175090 -5.727491 91 99 112
-0.698590 2.787302 -1.869398 181 137 234
0.100089 1.360086 -7.584982 91 99 102
3.783578 6.052089 -2.853600 92 99 117
0.074279 1.301208 -7.577400 58 56 59
3.512027 5.672308 -3.241243 90 97 116
3.602128 5.772131 -3.148084 142 149 167
0.555142 1.807865 -6.978906 0 0 0
4.630175 6.977881 -1.983198 99 104 124
4.541439 6.938442 -1.911036 128 135 154
-0.294576 3.011142 -1.950876 15 10 12
3.755448 5.609706 -3.296725 92 98 110
3.830935 5.711045 -3.171246 85 91 107
3.967592 5.835349 -3.023534 90 99 114
3.777826 5.497465 -3.377582 95 102 118
3.949539 5.687177 -3.191632 143 148 167
4.017774 5.665376 -3.216620 91 96 115
4.191987 5.662333 -3.179170 82 86 100
0.651905 1.082308 -7.739449 67 70 85
5.075441 6.626063 -2.233634 98 101 116
0.598682 0.861875 -7.993518 118 120 133
-0.330286 2.787578 -1.659185 177 147 241
-0.808556 2.295800 -1.829573 30 11 152
-0.806923 2.258634 -1.819150 100 99 254
1.007886 0.839279 -7.909361 96 99 114
0.031467 2.613618 -2.279155 30 29 27
5.137396 5.838055 -2.974808 141 149 168
-0.247706 2.649136 -1.628923 169 119 198
-0.264855 2.643820 -1.615741 169 119 198
5.166366 5.687401 -3.118367 99 106 124
5.265574 5.748950 -3.050468 94 102 114
1.178732 0.480999 -8.270773 106 109 124
5.701725 6.004901 -2.746887 101 108 124
-0.579443 1.839944 -2.685546 165 104 210
1.321651 0.469469 -8.241627 118 124 138
5.776392 5.895009 -2.737659 108 113 132
-0.502738 1.797090 -2.762088 224 199 44
1.765421 -0.016892 -8.705230 95 103 116
1.789474 -0.077933 -8.742733 84 90 104
1.931454 0.070140 -8.588483 125 133 146
1.958623 -0.017958 -8.709311 110 113 128
0.105777 2.277698 -2.003879 103 107 251
0.288111 2.026828 -2.679904 146 140 178
2.026106 -0.263589 -8.855456 125 131 145
7.991425 6.371536 -2.285225 0 0 0
2.988878 0.064726 -8.596265 95 103 115
2.540872 -0.623726 -9.101731 88 94 106
4.320989 1.405113 -6.998778 114 120 136
3.074061 -0.371601 -8.810124 128 134 150
8.603811 5.794171 -2.831619 79 85 97
7.752349 4.759203 -3.758189 114 120 134
3.325340 -0.421446 -8.799839 113 117 129
7.301344 3.594161 -4.988545 28 32 35
7.483923 3.589805 -4.953234 80 88 99
0.844828 1.891300 -2.318858 138 75 190
0.400665 1.552130 -2.456050 153 206 56
4.675821 -0.186867 -8.769147 0 0 0
1.038863 1.677208 -2.637830 145 180 102
1.064604 1.906828 -2.273682 180 175 172
8.310823 3.946574 -4.504654 118 124 138
0.569820 1.245776 -2.855773 143 175 108
5.182659 -1.094025 -9.506498 101 106 118
9.746013 3.957784 -4.468071 96 104 116
5.652588 -0.543181 -8.857290 125 131 143
5.639393 -0.543346 -8.843273 125 131 143
7.926122 1.924785 -6.418294 114 121 137
6.960681 0.069086 -8.237222 94 102 115
11.021235 4.063063 -4.251128 110 116 130
10.963683 4.049876 -4.233919 110 116 130
7.716488 0.120429 -8.129691 74 82 93
7.638204 0.319336 -7.690792 27 28 33
7.638204 0.319336 -7.690792 27 28 33
5.856431 -2.313166 -10.551327 17 17 17
5.856431 -2.313166 -10.551327 17 17 17
12.913869 4.908088 -3.468928 105 109 118
7.175090 -1.335837 -9.573040 134 138 150
7.290940 -0.776041 -8.756975 0 0 0
7.507345 -0.996002 -9.146144 21 27 27
10.636647 2.287054 -5.859639 109 119 131
14.637945 6.272137 -2.024390 42 45 54
7.712031 -1.226735 -9.321979 95 103 116
8.332359 -1.417168 -9.628068 83 87 98
15.406113 6.052030 -2.190143 27 28 33
7.853477 -2.031417 -10.133139 140 143 158
8.640621 -0.295457 -7.949421 125 131 143
7.856909 -2.465945 -10.512257 124 126 139
7.528421 -1.638097 -9.054564 117 121 132
8.543993 -2.141914 -10.235510 81 88 98
9.229474 -1.557386 -9.697019 101 105 116
10.943464 0.164638 -7.887943 95 101 113
7.642908 -2.960961 -10.911058 113 116 121
8.461159 -2.399502 -10.448126 37 38 35
8.114280 -3.288078 -11.322325 134 138 150
10.105854 -1.401807 -9.423594 115 118 127
13.726697 2.012174 -6.002114 20 26 24
8.404878 -3.245363 -11.170029 90 95 102
8.721980 -3.024616 -10.977014 122 126 138
8.849857 -3.317160 -11.320274 136 143 152
8.453720 -3.525428 -11.411176 134 140 151
9.271816 -3.529904 -11.615586 125 131 143
9.349088 -3.617137 -11.620945 32 36 37
9.171444 -3.665832 -11.408865 91 94 99
-0.107254 5.412613 -3.713786 119 125 141
0.256373 5.868076 -3.263683 86 93 111
-0.441825 4.914390 -4.216231 83 90 106
-1.374162 3.567954 -5.555391 197 216 248
-1.354376 3.588216 -5.514510 166 173 191
-1.390550 3.543007 -5.552706 116 122 141
-1.362191 3.550193 -5.553761 87 98 118
-1.334924 3.551915 -5.549608 222 236 255
0.684444 6.240750 -2.871160 150 157 176
-0.750260 4.292270 -4.795453 93 100 118
-0.077437 5.168606 -3.956240 75 81 97
1.069863 6.707331 -2.420576 101 104 123
0.048755 5.316041 -3.803180 120 123 138
1.215141 6.866431 -2.249912 154 161 180
-0.223360 4.939915 -4.163602 88 92 104
-1.068915 3.778137 -5.320306 128 133 152
1.247182 6.873051 -2.257581 36 30 27
-0.105645 4.975871 -4.137125 108 112 126
0.217693 5.394780 -3.719470 133 136 151
0.199985 5.360506 -3.753854 94 100 112
0.763435 6.087453 -3.030903 120 125 144
0.220153 5.316434 -3.832247 112 116 128
0.922247 6.261383 -2.850202 103 110 128
-1.426903 3.068027 -6.019106 110 112 125
0.647040 5.820919 -3.329781 0 0 0
-0.936042 3.662636 -5.526998 122 127 146
0.082254 5.043591 -4.058795 97 103 117
0.627686 5.746088 -3.353390 0 0 0
-1.546270 2.764957 -6.402594 103 109 121
1.632566 7.056931 -2.012701 129 138 155
0.912345 6.076152 -3.033787 120 127 145
1.726719 7.159837 -1.880820 140 143 158
0.061688 4.921433 -4.184195 103 106 121
0.112171 4.990214 -4.108319 96 104 117
0.069614 4.902508 -4.199175 103 106 121
0.070188 4.902872 -4.199650 103 106 121
0.120167 4.967914 -4.091690 78 81 96
0.067261 4.870713 -4.223577 76 80 92
1.362707 6.566498 -2.518187 158 162 187
0.034002 4.768425 -4.333691 109 113 124
0.822637 5.779682 -3.312833 118 124 140
1.091299 6.140212 -2.945858 165 172 190
0.607193 5.502628 -3.590047 104 107 122
0.996364 5.992132 -3.106873 96 101 120
0.137920 4.819070 -4.265282 80 84 96
1.824183 7.063413 -2.034255 105 110 129
1.055383 6.034446 -3.074156 93 98 117
0.249334 4.958675 -4.121454 93 99 111
0.183309 4.864152 -4.222137 96 100 112
1.261033 6.292587 -2.812502 139 144 163
0.262689 4.915590 -4.226269 74 78 90
1.358811 6.365553 -2.719215 157 162 184
1.457602 6.448671 -2.643670 163 169 191
0.964929 5.772158 -3.303256 116 121 140
1.156457 6.008984 -3.066988 118 124 138
1.701660 6.691950 -2.367225 130 136 152
0.276125 4.769998 -4.295688 105 108 117
-1.001585 3.008123 -6.052638 94 100 116
1.268644 6.036256 -3.044153 75 81 97
1.809655 6.717490 -2.313826 129 134 152
1.392661 6.102344 -2.951815 110 115 135
1.498793 6.225864 -2.847075 175 177 198
-0.540497 3.467571 -5.581976 104 110 126
1.195952 5.709067 -3.356383 71 77 91
0.171824 4.400220 -4.376061 122 114 99
2.308016 7.148492 -1.917948 136 141 161
-0.496240 3.392605 -5.638537 103 106 121
1.447257 5.866092 -3.193515 129 135 151
2.064180 6.671153 -2.387053 115 122 141
1.541666 5.861911 -3.210804 94 99 118
1.548792 5.810473 -3.237274 116 121 140
2.550073 7.033210 -2.009557 131 135 160
1.374386 5.389849 -3.642910 103 107 119
0.892770 4.659935 -4.402923 57 60 67
-0.002429 3.807482 -4.022071 87 80 54
1.436185 5.353961 -3.656275 88 94 106
1.483692 5.359457 -3.669297 124 130 144
-0.897379 2.188917 -6.788891 111 113 126
1.167142 4.907524 -4.104185 77 80 89
2.636764 6.791322 -2.262222 24 28 30
2.683542 6.844263 -2.196395 126 133 152
1.545388 5.350807 -3.666952 87 93 107
1.607891 5.372560 -3.641930 77 83 97
-0.720308 2.243910 -6.736914 101 104 119
1.727154 5.455300 -3.548956 141 146 165
2.687577 6.554849 -2.450692 132 138 160
2.220957 5.917705 -3.091796 123 128 148
2.717946 6.538480 -2.486042 144 150 172
1.659349 5.143410 -3.883073 79 87 100
-0.386043 2.365805 -6.901223 0 0 0
2.855171 6.642401 -2.350413 139 144 164
1.294642 4.585582 -4.366718 73 77 88
1.316213 4.575975 -4.389573 111 115 126
1.884806 5.273977 -3.715201 119 125 141
1.515414 4.544923 -4.435874 89 96 106
-0.987168 2.862980 -2.081524 195 161 255
2.206119 5.261423 -3.793205 116 122 138
2.422072 5.553992 -3.409699 76 83 101
3.362049 6.711328 -2.325093 115 120 140
2.171202 5.119854 -3.850867 122 128 144
2.127629 5.029796 -3.994497 120 126 142
-0.385749 1.778908 -7.137141 99 106 124
2.146442 5.005058 -3.949935 84 90 104
3.360696 6.414714 -2.567930 166 174 193
3.545067 6.655282 -2.321383 116 121 141
2.293516 4.837273 -4.166348 83 90 106
-0.897559 2.748395 -2.089535 130 85 151
3.423337 6.287302 -2.672607 124 133 148
-1.126271 2.581783 -1.942221 162 86 174
-1.126271 2.581783 -1.942221 162 86 174
2.369325 4.820097 -4.204970 124 130 146
2.334719 4.804154 -4.141117 98 104 120
1.250542 3.382643 -5.545197 66 74 87
-1.044032 2.616141 -1.969702 186 120 222
-1.005808 2.633047 -2.013685 186 120 222
3.239212 5.728828 -3.244852 93 99 113
4.093160 6.840530 -2.092309 132 138 160
4.387853 7.179959 -1.990621 0 0 0
3.974879 6.583070 -2.368247 134 145 165
3.699283 6.217090 -2.714176 148 155 174
3.700606 6.218842 -2.714531 148 155 174
3.717703 6.224373 -2.691650 116 122 146
3.358316 5.686347 -3.240567 137 149 172
3.562865 5.947748 -2.960858 124 129 148
3.666607 6.028389 -2.905249 86 97 114
3.914611 6.036283 -2.899547 110 117 135
-0.681359 2.706995 -1.910396 146 78 189
4.454051 6.681305 -2.213118 114 122 140
0.545252 1.643292 -7.171065 104 110 126
4.046606 6.019362 -2.888525 124 131 149
0.521506 1.528270 -7.279521 92 98 112
3.885688 5.620638 -3.249213 86 96 108
3.407996 4.961400 -3.912370 165 184 214
3.842102 5.501355 -3.389771 134 141 159
3.942024 5.557196 -3.318899 92 94 109
3.945458 5.559209 -3.320875 92 94 109
3.835440 5.297675 -3.559524 134 136 149
3.975353 5.449224 -3.425357 124 133 150
4.838905 6.124469 -2.746860 128 137 154
5.439052 6.686946 -2.211915 131 138 162
5.061555 6.122748 -2.699502 107 120 137
-0.265418 2.762435 -1.624043 169 134 226
1.609270 1.776978 -6.977336 32 42 52
5.465293 6.478851 -2.340846 111 118 134
5.303061 6.179224 -2.663734 112 118 132
5.264918 5.897276 -2.872679 92 98 114
1.305277 0.856006 -8.011583 109 112 127
5.585749 6.163338 -2.605996 0 0 0
-0.224129 2.625276 -1.664832 118 77 110
1.223430 0.685433 -8.023057 97 98 116
1.411757 0.848949 -7.835207 97 103 117
1.366873 0.663212 -8.071132 102 109 123
6.462309 6.740441 -1.995514 0 0 0
-0.181153 2.607517 -1.474836 180 109 215
7.083214 6.101595 -2.569109 102 108 124
7.008929 5.974616 -2.670220 103 111 130
2.029978 -0.165768 -8.846205 87 90 105
7.629519 6.248108 -2.399866 150 157 182
7.629519 6.248108 -2.399866 150 157 182
1.201988 3.120353 -1.309154 228 254 253
0.291552 1.730054 -2.964003 180 193 131
1.264692 3.130647 -1.280050 189 207 236
2.756658 -0.018444 -8.715120 89 97 110
0.404577 1.781763 -2.843435 65 80 49
8.106941 6.244969 -2.342188 0 0 0
6.329181 3.891084 -4.737490 107 119 133
8.137523 6.081285 -2.515587 39 40 44
6.934978 4.822200 -3.143157 0 0 0
8.505457 6.058005 -2.657904 78 87 96
4.805273 1.052901 -7.499777 86 93 103
4.882911 1.018413 -7.480851 0 0 0
9.435828 6.151935 -2.406078 0 0 0
0.894641 1.951620 -2.337982 162 140 213
7.583531 3.617273 -4.889464 45 49 52
9.883645 5.948720 -2.726496 43 42 49
7.716858 3.576265 -4.950140 108 117 128
0.990919 1.681758 -2.635958 71 103 57
1.047263 1.717561 -2.575663 158 197 80
10.498474 6.382273 -2.061743 36 40 46
1.184899 1.907285 -2.318151 161 203 104
9.715913 5.282462 -3.209902 92 99 113
1.160004 1.843010 -2.364853 180 220 131
1.195624 1.872630 -2.336418 157 199 89
4.750364 -0.613865 -9.073754 95 101 113
1.070172 1.406706 -2.751831 50 34 21
9.460732 3.982956 -4.373584 30 33 40
7.570452 -0.070125 -9.958849 0 0 0
0.911158 1.453260 -2.436442 191 229 154
1.017204 1.516390 -2.330364 210 247 143
7.574335 -0.422493 -9.820641 0 0 0
7.034460 0.283460 -7.960727 111 117 131
7.034460 0.283460 -7.960727 111 117 131
8.475858 1.655576 -6.679949 37 40 45
8.552304 1.578713 -6.714585 124 133 146
8.174916 0.304449 -8.613907 0 0 0
1.316769 1.905836 -1.706439 43 71 56
6.134904 -1.612569 -9.920756 136 135 149
10.290660 2.875584 -5.375050 104 113 121
5.795255 -1.592141 -9.567994 117 121 133
7.489839 -0.383275 -8.619717 55 62 70
8.798343 0.869457 -7.407955 0 0 0
6.455088 -1.679226 -9.921834 140 144 156
9.510927 1.500849 -6.782652 94 101 111
6.933429 -1.319612 -9.587508 108 112 123
7.957418 -0.979120 -9.233150 102 108 122
12.280817 3.545529 -4.610641 69 76 84
6.855609 -2.404317 -10.537324 133 137 149
8.221804 -1.134863 -9.320393 92 96 108
10.937728 1.767854 -6.379808 28 31 36
8.234162 -1.258308 -9.424269 119 122 137
7.782493 -1.910483 -10.078144 83 88 91
8.577382 -1.754982 -9.917709 123 125 138
7.988071 -2.640871 -10.688807 125 128 135
12.352319 1.532415 -6.564994 103 112 121
9.959599 -1.171320 -9.195667 114 116 128
10.769767 -0.933611 -9.084593 112 119 127
7.982138 -3.112437 -10.992032 134 137 144
7.982138 -3.112437 -10.992032 134 137 144
13.807961 2.040683 -6.084724 75 82 89
10.470540 -1.395635 -9.381690 130 138 151
9.377810 -2.665797 -10.668143 135 144 153
11.452699 -0.942857 -8.877930 88 91 97
10.866171 -1.936719 -9.961712 49 47 44
14.436590 1.808231 -5.984903 95 99 108
14.866286 2.268281 -5.435116 178 65 113
0.552370 0.884558 -3.767899 95 101 115
0.892038 1.954550 -2.216673 117 73 170
-1.333466 2.625011 -6.435627 89 91 106
0.873307 3.467288 -1.512683 150 166 191
-1.238188 2.397830 -6.640569 122 128 144
-0.414681 2.476544 -6.540936 126 131 151
-1.402052 3.092265 -5.986467 56 55 60
-1.326407 2.982869 -6.131486 43 42 48
-1.075595 3.304138 -5.766471 102 109 125
-1.095007 2.369696 -6.651003 85 89 101
10.942578 -2.283429 -10.172517 52 52 50
-1.065925 2.680562 -6.330519 118 123 142
-1.016074 2.687787 -6.340369 125 130 148
-0.762263 2.748784 -6.292937 120 126 142
-0.867640 2.537627 -6.452208 78 84 98
-0.867608 2.535558 -6.452231 78 84 98
0.882708 5.301261 -3.753727 80 84 96
-0.360103 2.200798 -6.745437 40 47 57
3.042953 6.625852 -2.412226 150 155 177
7.694597 5.035373 -3.575090 135 142 164
6.505344 -1.086151 -9.424220 118 122 134
0.787455 7.059328 -2.084225 157 164 180
0.787455 7.059328 -2.084225 157 164 180
-1.210868 3.354256 -5.711609 95 100 119
-1.022176 3.674645 -5.406579 87 92 111
-1.243290 3.152085 -5.917558 124 127 144
-1.270736 3.074511 -5.996727 93 96 111
-1.096944 2.935946 -6.174484 93 96 113
-1.211661 2.567746 -6.447732 104 108 120
-1.018787 2.429079 -6.573295 126 132 146
2.419217 4.637424 -4.203248 83 92 107
4.978864 1.059374 -7.493027 106 112 127
5.909663 -0.270887 -8.621722 107 117 129
7.454523 -0.409577 -9.952324 0 0 0
6.784050 -2.035410 -10.234140 101 104 113
0.730852 6.680872 -2.491601 123 126 143
0.966134 6.918054 -2.037631 99 104 123
-0.699904 2.906125 -6.120951 127 130 145
1.762409 7.006149 -2.135712 76 79 94
-0.914909 2.222390 -6.761069 114 118 129
-0.509504 2.285513 -6.649323 100 106 120
-0.357880 2.450021 -6.495883 119 122 141
6.882307 6.600003 -2.148851 118 124 140
6.710582 6.132510 -2.328037 0 0 0
6.966046 5.813292 -2.849778 115 122 138
4.727974 1.286382 -7.272952 82 88 102
8.488978 5.465262 -3.042294 42 45 54
8.541192 5.390525 -3.111729 27 32 35
8.763018 5.163423 -3.306064 100 106 122
6.082257 -0.058383 -8.573833 95 101 113
6.087528 -0.429406 -8.677202 131 137 149
7.366455 0.269914 -7.970265 117 123 138
-0.690529 2.246546 -6.748990 123 126 138
-0.445409 4.026276 -5.054679 99 102 116
-0.047872 2.758568 -6.208245 87 91 105
-0.457827 2.289309 -6.673693 65 67 75
2.769022 7.134605 -1.887435 127 134 151
-0.640463 2.581439 -6.401102 80 84 94
0.744693 1.263075 -7.615261 48 50 57
7.987381 6.331861 -2.262681 64 65 74
1.683939 5.957515 -3.086652 68 69 78
-1.068175 3.269525 -5.794839 108 108 122
-0.438718 2.594769 -6.379297 45 48 60
-1.007285 3.192145 -5.862930 99 105 121
4.542258 7.002306 -1.973853 64 69 79
1.243322 5.440035 -3.610976 78 84 98
1.825947 2.664631 -6.182318 94 99 108
0.336491 6.093338 -3.049675 93 99 116
11.898688 1.609020 -6.366081 98 104 117
8.184834 1.786008 -6.664552 59 62 70
2.157351 2.637304 -6.183686 96 104 118
4.051278 6.587059 -2.322605 55 63 72
0.618904 5.697023 -3.399816 119 125 143
1.007088 6.607369 -2.511123 100 105 120
-0.117374 5.428576 -3.702675 111 116 133
6.145220 6.967712 -1.803635 39 43 52
-0.655551 3.382394 -5.660284 98 105 121
5.488830 6.733861 -2.095681 58 63 75
8.689787 1.413120 -6.816232 72 74 80
3.589020 5.875051 -3.036392 74 79 90
3.015471 6.881334 -2.139380 119 126 145
1.363330 3.069986 -5.845114 46 50 58
5.422069 6.499294 -2.296040 70 76 88
-0.835286 2.788274 -6.228442 48 51 61
0.788328 5.970436 -2.595032 133 140 158
0.758519 1.430646 -2.839828 181 198 208
0.758519 1.430646 -2.839828 181 198 208
0.233788 0.787209 -3.931541 202 222 249
0.081323 1.418818 -4.294175 195 212 238
-0.561760 2.051323 -2.554387 15 20 13
1.376452 3.207367 -1.320351 225 248 255
-0.948540 3.872741 -5.219672 0 0 0
0.983816 6.859399 -2.578456 0 0 0
-0.323202 1.690766 -7.386309 98 104 120
7.641241 -1.465505 -9.786877 129 135 147
8.887900 -2.255303 -10.581401 101 105 116
0.211073 4.508498 -4.659113 122 127 130
-0.533185 2.012986 -6.854796 101 103 115
0.624817 1.699773 -7.085166 0 0 0
3.440159 5.776935 -3.121050 113 120 138
1.822116 0.629265 -8.072883 88 94 105
1.791412 0.633478 -8.024241 88 94 105
0.560480 3.284450 -1.267517 12 25 7
0.858216 2.992268 -1.746368 168 187 204
0.922875 2.105317 -2.215422 157 133 185
0.689813 1.243755 -2.771480 200 221 240
6.717896 -1.317915 -9.475603 113 120 131
7.821615 -2.085784 -10.136112 123 130 140
9.336956 -2.580177 -10.492409 111 116 122
9.336956 -2.580177 -10.492409 111 116 122
3.902814 5.953766 -2.963602 143 148 168
4.983612 6.568073 -2.353962 93 100 118
-0.441943 2.123159 -2.489107 208 204 252
5.128153 6.373755 -2.547522 73 79 95
5.128153 6.373755 -2.547522 73 79 95
0.973314 1.629846 -2.618646 119 140 118
4.801530 -1.187467 -9.403401 114 116 129
6.480798 -1.311675 -9.811476 113 116 131
6.725331 -1.896752 -10.196067 127 135 148
6.841752 -2.263452 -10.421207 115 117 129
-0.883163 4.388075 -4.797221 123 134 156
-1.293850 2.658873 -6.366680 114 117 134
-1.291072 2.659804 -6.373272 114 117 134
0.187230 5.254675 -3.854881 114 117 132
-1.100895 2.252129 -6.769638 109 115 129
-0.515002 2.345702 -6.603633 96 102 116
0.226609 3.910875 -4.034316 51 47 35
-0.954461 2.842530 -1.955610 126 63 134
4.095871 5.919162 -3.004950 88 95 111
1.148626 0.857700 -7.850084 138 138 154
-0.715807 1.860666 -2.623413 208 206 255
-0.676759 1.711538 -2.745141 235 242 252
0.003600 2.157340 -2.568582 200 205 254
0.003600 2.157340 -2.568582 200 205 254
6.859460 6.788573 -1.846201 86 92 108
1.357647 1.693097 -2.608139 89 49 109
1.357647 1.693097 -2.608139 89 49 109
1.054030 1.576855 -2.483726 185 207 197
10.400400 4.354031 -4.073445 106 112 126
8.146597 -2.614425 -10.709990 102 102 110
-0.973675 4.053527 -5.057181 111 117 131
-0.933179 3.956040 -5.187892 78 84 100
0.685878 6.836703 -2.317396 0 0 0
-1.503424 2.661018 -6.395186 88 91 106
-1.500410 2.664885 -6.410891 88 91 106
-0.937896 3.625848 -5.410643 0 0 0
-1.290155 2.987351 -6.077510 122 125 144
1.040624 7.101673 -1.978043 0 0 0
1.040624 7.101673 -1.978043 0 0 0
-1.204997 2.862437 -6.203693 122 128 144
1.197362 6.984123 -2.159473 0 0 0
-0.088908 2.863396 -6.077579 82 91 106
-0.548561 1.844587 -7.106047 112 116 135
0.408370 2.328016 -6.584433 108 114 136
1.003643 3.027165 -5.847930 78 84 96
-0.668363 2.779056 -1.921672 93 39 114
3.409730 5.909397 -3.009073 93 100 116
4.079671 6.575026 -2.304776 101 110 125
-0.612342 1.909685 -2.526398 53 73 62
-0.617656 1.861326 -2.491429 211 220 251
0.915488 3.098114 -1.719222 59 84 45
0.524914 0.954144 -3.764328 85 91 103
1.357210 1.653692 -2.548047 211 233 254
6.483843 -2.256675 -10.289167 103 103 113
8.389811 0.111673 -8.137341 106 116 126
7.460751 -1.965512 -10.151751 106 110 121
7.833312 -2.433580 -10.584784 133 138 149
8.605949 -2.401764 -10.401531 90 94 106
9.189505 -2.833861 -10.858776 77 80 89
-1.464661 2.950115 -6.137145 90 91 109
-1.360996 3.105858 -5.976716 129 135 151
-1.326541 3.069901 -6.021701 134 141 159
1.115856 7.109644 -1.967899 120 124 142
0.863490 6.208694 -2.893075 127 135 154
-0.582808 3.291305 -5.675351 0 0 0
-0.783870 2.474939 -6.531085 101 104 121
-0.304272 2.893777 -6.085579 111 117 133
-0.993184 2.930270 -1.987585 184 116 229
-0.974342 2.832198 -2.103588 73 74 105
3.541306 5.667942 -3.236786 95 104 119
4.190841 6.162563 -2.733786 127 134 155
-0.368088 2.746593 -1.675984 146 83 188
-0.286495 2.759344 -1.638524 108 78 140
-0.588860 1.962903 -2.607060 195 196 253
-0.225404 2.613263 -1.541351 39 0 27
-0.344151 1.902636 -2.568455 204 205 253
2.369748 0.143716 -8.442512 100 106 119
2.369748 0.143716 -8.442512 100 106 119
2.454674 -0.109340 -8.609553 80 86 98
2.612549 -0.001889 -8.539433 93 100 113
2.888199 -0.189737 -8.683876 99 105 121
1.251644 3.266237 -1.323390 165 177 157
3.088494 -0.634053 -9.099757 103 111 124
1.240651 3.251301 -1.223154 219 238 251
7.255167 6.514930 -1.728500 0 0 0
1.261691 1.804619 -2.512512 32 16 28
6.723673 -2.246373 -10.370216 128 132 143
1.336192 1.907651 -1.663865 67 98 90
1.352153 1.873836 -1.692405 76 109 98
13.801839 5.702386 -2.514825 78 81 89
14.286854 6.198441 -2.075189 95 101 113
8.939307 -2.779870 -10.846064 108 110 125
10.078784 -2.972335 -10.711347 123 123 132
0.640731 6.702645 -2.473579 127 132 151
-0.274648 4.960902 -4.204378 76 82 94
0.882363 7.069919 -2.049070 0 0 0
-0.901651 3.469781 -5.594732 114 121 139
-1.253629 2.795850 -6.257819 123 122 135
1.199252 7.093204 -2.044320 126 133 152
0.355606 5.540169 -3.580009 83 89 103
-0.848125 3.372684 -5.629758 112 119 137
-0.775411 3.406745 -5.653123 102 109 125
-1.335897 2.320517 -6.693715 82 89 105
-0.724920 3.287947 -5.700492 0 0 0
1.427652 7.112472 -1.978717 0 0 0
0.171313 4.534747 -4.459105 73 80 88
2.002292 6.454305 -2.580899 112 117 136
0.067440 3.704511 -3.749714 113 101 137
1.821136 5.785460 -3.205858 94 99 119
2.287706 6.289710 -2.727298 100 103 122
1.359614 4.607824 -4.348200 153 159 181
1.925534 5.509219 -3.498684 96 102 118
1.925064 5.508954 -3.498361 96 102 118
-0.286614 1.443586 -7.364594 121 127 143
0.008402 1.595817 -7.304171 102 106 117
-0.970596 2.877585 -1.983613 175 135 221
-0.093480 1.315657 -7.495954 131 134 151
0.221929 1.690348 -7.140376 104 109 128
3.078725 6.147235 -2.817830 135 141 163
3.331851 6.499286 -2.491645 150 156 172
3.041651 5.716884 -3.239435 103 114 132
-0.375340 3.172242 -1.755224 63 48 92
-0.678943 2.838318 -1.814503 173 138 245
1.047629 1.666715 -7.107141 122 131 148
3.450678 5.596381 -3.320061 112 119 138
4.338654 6.153561 -2.697784 138 149 171
-0.743018 1.892306 -2.778377 187 192 248
4.360684 5.882505 -2.967645 83 89 105
1.369898 0.497360 -8.238236 92 98 112
-0.689058 1.828931 -2.757860 193 189 254
1.559575 0.281707 -8.363895 126 129 148
5.545580 6.902350 -1.913735 108 117 132
5.580367 6.924335 -1.924239 108 117 132
-0.241490 2.628912 -1.577542 161 148 202
2.485344 0.441115 -8.368691 89 97 110
5.560983 5.929173 -2.663639 0 0 0
2.692554 -0.191012 -8.818911 124 130 142
0.289162 1.960280 -2.423701 136 173 37
0.911508 2.355012 -2.336797 8 14 7
3.215255 -0.571492 -9.038513 99 103 115
7.473652 6.395760 -2.249491 0 0 0
3.384533 -0.614347 -9.056684 121 124 141
1.187403 2.763044 -1.516556 197 214 232
1.187403 2.763044 -1.516556 197 214 232
0.985687 2.107622 -2.257138 52 24 63
5.579006 -0.804603 -9.203296 116 122 136
1.184440 1.626544 -2.611973 30 31 34
6.278234 -0.770345 -9.103602 116 122 138
6.608633 -1.533117 -9.630288 129 136 149
7.270182 -1.582319 -9.826053 101 105 114
6.644230 -1.817591 -9.772879 114 120 132
8.513533 1.039896 -6.853432 0 0 0
9.314669 -0.296853 -8.406191 127 129 142
12.175835 3.701791 -4.395906 103 106 115
12.075854 2.445854 -5.730162 81 85 94
9.216138 -2.090476 -10.124261 97 102 109
13.968767 5.679464 -2.272924 60 63 68
10.621981 -2.082299 -9.993034 127 130 141
10.276027 -3.218090 -11.206149 124 125 130
12.371603 0.455338 -7.437006 96 100 112
-0.647711 4.739552 -4.393904 0 0 0
0.664065 6.935461 -2.225971 135 141 157
-1.116974 3.718601 -5.355348 84 91 109
-1.375537 3.199490 -5.867919 126 131 150
-1.317789 3.274429 -5.823946 120 123 142
0.755909 6.949839 -2.271117 0 0 0
-1.444320 2.981093 -6.105207 109 112 129
-1.442963 2.982107 -6.108426 109 112 129
-1.061282 3.656806 -5.432061 89 96 114
-1.602515 2.573171 -6.467015 86 92 106
-1.520694 2.717621 -6.340371 72 75 91
-1.491419 2.716437 -6.354742 121 124 141
1.002827 7.196102 -2.016458 0 0 0
-1.350483 2.810799 -6.250547 111 113 128
-1.350483 2.810799 -6.250547 111 113 128
0.903590 6.878795 -2.213470 0 0 0
0.903590 6.878795 -2.213470 0 0 0
0.549579 6.178073 -2.957960 91 98 116
-1.227945 2.977258 -6.074339 126 132 148
0.366059 5.835011 -3.073910 0 0 0
-1.301738 2.734349 -6.329186 114 116 131
-1.134653 2.959171 -6.096353 99 102 119
-1.123813 2.981575 -6.074785 128 134 150
-0.854102 3.439177 -5.660491 107 114 132
-1.093143 2.796099 -5.981178 0 0 0
-1.210017 2.603055 -6.425059 80 85 102
1.163638 6.833964 -2.274373 132 139 157
-1.052483 2.813444 -6.239891 116 122 138
1.372065 7.103603 -1.990219 0 0 0
0.233577 4.951162 -4.071856 0 0 0
-1.140798 2.415524 -6.623999 119 123 135
0.397804 5.099813 -3.990008 95 99 111
1.141181 6.384328 -2.672574 123 128 148
-0.038479 4.262486 -4.786808 40 44 53
-0.668319 3.138215 -5.876068 78 85 103
-0.883352 2.669535 -6.356724 120 126 142
1.464390 6.633724 -2.443075 139 146 165
0.389501 4.704756 -4.372469 85 89 98
0.019032 4.123462 -4.724794 134 139 141
0.942048 5.596543 -3.735257 0 0 0
0.998504 5.439667 -3.626691 77 83 97
-0.412420 2.297372 -6.626808 98 104 118
-0.610930 1.886251 -7.061810 89 94 113
1.647464 5.553128 -3.460691 182 193 211
-0.395488 1.752235 -7.170017 125 130 149
-0.358354 1.779049 -7.136594 118 124 139
1.685228 5.325794 -3.729036 81 89 102
2.245160 6.319193 -2.687846 106 111 130
-0.358127 1.672739 -7.215749 103 109 125
-0.233293 1.690769 -7.210751 133 136 153
2.245734 5.989041 -2.992130 116 123 142
1.892291 5.327566 -3.659491 127 130 145
0.926342 3.335746 -5.587071 127 132 151
-0.993062 2.792023 -2.113588 177 141 237
-0.980687 2.857855 -2.000167 54 57 94
-0.952712 2.844368 -1.999501 66 76 111
0.865067 2.936064 -5.971588 88 94 108
-0.998089 2.732927 -2.128788 164 124 210
3.482449 7.323443 -1.899966 99 104 123
1.984187 4.814890 -4.141815 95 101 115
0.270846 1.358323 -7.595997 138 141 158
-0.982612 2.701153 -1.818791 168 101 207
3.176421 5.980581 -2.969054 150 154 181
0.581346 1.386600 -7.462368 139 145 162
0.544255 3.919049 -2.000373 50 73 27
0.544255 3.919049 -2.000373 50 73 27
-0.696085 2.735172 -1.881674 162 103 211
3.493803 5.951101 -2.940310 92 101 114
3.755806 6.405880 -2.535735 113 120 138
3.809854 6.287202 -2.631824 99 106 125
4.027074 6.707730 -2.146668 99 107 126
-0.247541 2.972557 -2.005281 81 71 71
3.676818 5.603881 -3.284202 132 140 158
1.969521 2.342238 -6.473605 104 110 122
1.296778 0.473416 -8.196525 123 129 143
-0.374190 2.173961 -2.548619 10 16 9
-0.199100 2.813167 -1.536313 49 43 44
4.982196 6.140393 -2.684994 75 80 91
1.833557 0.416275 -8.263674 110 116 130
-0.319979 2.064738 -2.536140 206 171 250
1.824696 0.260880 -8.408143 132 138 152
5.390647 5.902931 -2.857573 70 76 90
-0.182747 2.646508 -1.486480 173 134 227
6.044946 5.929269 -2.892804 103 112 127
2.469479 -0.160979 -8.725202 126 132 148
0.055845 2.165215 -2.170784 58 42 128
2.949698 0.038814 -8.699955 125 133 144
2.812514 -0.179210 -8.699963 115 119 132
6.919288 6.317863 -2.312690 116 123 142
3.219079 -0.265529 -8.799030 147 153 168
0.422895 1.148434 -3.749690 222 249 255
0.048642 0.747380 -3.879914 100 106 122
1.290795 3.161913 -1.267772 228 253 253
1.402471 3.175233 -1.341289 196 215 242
3.500869 -0.636091 -9.039304 129 131 144
3.858779 -0.445606 -9.053717 122 120 125
0.850943 2.004843 -2.373638 165 152 222
0.378157 1.595798 -2.477985 151 188 57
4.326865 -1.033744 -9.490788 88 94 106
4.831234 -0.703282 -9.198794 107 111 123
4.632318 -1.170354 -9.353889 97 101 112
4.845001 -1.226935 -9.506623 118 120 133
4.751828 -1.195801 -9.393138 118 120 133
4.613001 -1.641208 -9.940039 119 122 137
6.005430 -0.370126 -8.740808 119 125 139
6.026998 -1.189273 -9.491759 135 138 150
6.158439 -1.439913 -9.725671 134 140 152
6.211254 -1.455945 -9.780515 134 140 152
6.077267 -2.179418 -10.324912 81 84 89
6.608504 -1.888175 -10.153776 150 156 170
6.233970 -2.712046 -10.945682 112 115 122
6.638867 -2.008819 -10.200861 135 143 154
6.995652 -1.507618 -9.707810 127 133 143
8.908361 1.497024 -6.755905 84 90 102
7.288015 -1.295171 -9.571350 137 144 160
6.750480 -1.887435 -10.063185 110 114 126
6.989398 -2.026165 -10.220208 0 5 0
7.464127 -1.077358 -9.222877 107 111 122
7.087532 -2.078905 -10.259969 131 135 150
7.305960 -1.803632 -10.005341 123 132 139
7.307349 -1.804139 -10.006545 123 132 139
6.899796 -2.525701 -10.747760 148 146 160
6.808765 -2.685490 -10.858693 133 143 155
7.580526 -1.858264 -10.156131 100 104 115
12.238976 6.016837 -2.239013 110 113 128
1.370759 1.882732 -1.656822 87 124 116
12.440860 6.056491 -2.208232 141 147 161
11.067708 2.701117 -5.473469 91 100 109
7.816313 -2.493736 -10.614599 137 141 152
8.400730 -2.053995 -10.169541 120 123 138
14.002207 5.893438 -2.651412 0 0 0
8.549292 -2.233172 -10.332765 124 136 148
9.447227 -1.124465 -9.230766 103 107 117
8.967239 -3.135560 -11.125710 40 35 39
10.042446 -3.096706 -11.104697 84 88 92
10.051281 -2.869370 -10.786616 57 56 55
10.183632 -3.014777 -10.945022 50 54 48
0.366910 6.710967 -2.394716 0 0 0
-0.251573 5.559783 -3.583182 109 116 134
0.638532 7.042015 -2.092697 0 0 0
0.349426 6.529905 -2.625738 0 0 0
0.391771 6.593042 -2.551524 148 153 173
-1.331462 3.455073 -5.630295 99 105 121
-1.093077 3.855714 -5.281356 86 92 108
-1.231606 3.575844 -5.551524 132 137 156
-1.444941 3.091543 -5.983695 124 124 134
-1.123412 3.587225 -5.495362 98 104 123
-0.094782 5.443998 -3.694991 82 88 104
-1.439288 2.994848 -6.063527 88 89 107
-0.938084 3.861668 -5.158803 0 0 0
0.740829 6.794653 -2.357857 120 125 144
0.804726 6.882735 -2.296713 135 141 157
-1.011508 3.618926 -5.394489 92 99 117
0.875064 6.979493 -2.108869 137 143 159
-1.345504 2.876253 -6.245184 94 96 111
-1.354183 2.871357 -6.211225 94 96 111
0.852377 6.835953 -2.339303 110 116 132
-0.009953 5.214514 -3.903471 76 82 97
0.514967 6.148577 -2.981632 84 91 109
-1.118266 3.179278 -5.905545 87 93 105
-1.275279 2.863684 -6.254272 140 143 152
-1.104407 3.143728 -5.922074 81 88 104
-0.885237 3.490303 -5.583227 0 0 0
-0.885372 3.489972 -5.582683 94 101 119
1.023306 6.785312 -2.352239 107 112 131
0.054965 5.029453 -4.057825 78 84 98
0.021372 4.946670 -4.155625 74 80 94
-1.012082 3.050558 -6.058817 92 95 110
1.051141 6.750119 -2.366532 148 153 172
-0.788817 3.379652 -5.673281 85 94 111
0.187350 5.111985 -3.987186 68 71 86
0.003725 4.772907 -4.294188 110 114 125
-1.037280 2.868810 -6.194530 126 129 146
0.160091 4.930451 -4.157030 74 77 92
-1.084989 2.635098 -6.390074 108 113 132
-1.035099 2.667316 -6.332712 86 91 110
1.049021 6.229371 -2.855998 158 161 178
1.270030 6.565977 -2.518851 171 176 196
-0.823483 2.756255 -6.221186 91 97 111
-0.881766 2.436027 -6.586209 117 121 133
0.357625 4.667179 -4.374921 60 65 69
0.839411 5.477269 -3.603447 100 105 121
-0.452412 2.915352 -6.098789 75 82 100
-0.652542 2.566077 -6.413491 93 96 111
1.286911 5.910532 -3.141656 108 114 130
-0.592452 2.494473 -6.462820 92 95 110
1.547568 6.111773 -2.939299 100 105 125
1.909191 6.673512 -2.401430 93 99 115
1.806385 6.305419 -2.723298 124 129 149
1.712742 6.076382 -2.959399 177 187 212
-0.412458 2.276528 -6.648649 95 99 113
-0.313230 2.437787 -6.525391 95 100 120
1.680728 5.954556 -3.083942 141 146 166
0.010945 2.827669 -6.346292 0 0 0
1.556343 5.410601 -3.614408 80 83 98
1.648300 5.577845 -3.436497 78 85 99
-0.397302 1.885103 -7.067875 88 94 106
0.158470 2.782203 -6.142839 0 0 0
1.870971 5.648579 -3.358188 132 139 157
2.164033 6.150266 -2.842219 113 120 139
1.849415 5.519250 -3.488893 127 133 149
1.924006 5.631034 -3.369794 96 103 121
1.938134 5.552969 -3.438602 127 134 153
-0.235427 1.675534 -7.274275 111 114 131
1.916104 5.386770 -3.658175 121 127 139
2.013473 5.453220 -3.549643 131 138 157
1.992459 5.379428 -3.645161 130 134 153
2.236733 5.825282 -3.148156 117 124 142
-0.272318 1.396960 -7.477250 91 94 111
2.798151 6.725842 -2.286082 106 112 128
2.291743 5.752519 -3.219640 112 119 135
-0.002422 1.266126 -7.555833 117 120 137
0.504385 1.951613 -7.016330 0 0 0
0.044874 1.263592 -7.389666 0 0 0
3.374139 7.011734 -1.959037 104 109 128
0.173153 1.415165 -7.415860 137 140 155
-1.085914 2.605477 -1.966075 95 34 78
1.304735 3.250853 -5.638208 96 106 118
3.150230 6.441082 -2.533054 124 127 144
0.517358 1.677281 -7.101080 0 0 0
1.383753 3.212290 -5.703526 66 72 86
-0.617643 3.047238 -1.876467 50 15 69
2.598709 5.234694 -3.690594 100 106 122
2.725601 5.293469 -3.635943 104 108 120
3.295663 6.258587 -2.723984 135 143 162
0.558821 1.481173 -7.290802 0 0 0
3.264938 6.139012 -2.790992 109 113 125
3.531503 6.221034 -2.722552 131 137 153
0.819585 1.476191 -7.220446 0 0 0
3.679133 6.313588 -2.577539 155 161 187
4.061071 6.827209 -2.110788 0 0 0
0.928124 1.030877 -7.791575 120 126 142
4.366898 6.844586 -2.032736 150 159 176
0.972918 0.947226 -7.834860 120 124 139
3.708638 5.557943 -3.331105 120 128 141
3.708638 5.557943 -3.331105 120 128 141
3.847723 5.603267 -3.275501 107 112 131
4.006963 5.619498 -3.258573 122 128 144
4.012133 5.662395 -3.213608 91 96 115
1.158552 0.637744 -8.125846 92 98 110
1.759639 1.563735 -7.235887 0 0 0
1.308093 0.729605 -7.990317 94 98 110
4.943597 6.861729 -2.080927 135 142 161
-0.328251 2.743908 -1.737763 164 120 217
5.177329 6.692445 -2.258188 94 101 117
-0.544312 1.976156 -2.489874 61 60 68
-0.540459 1.986422 -2.475376 204 206 254
0.591288 3.302732 -1.640240 82 105 102
5.284253 6.316937 -2.500132 0 0 0
5.512700 6.775664 -1.997260 0 0 0
-0.179104 2.365031 -2.129396 47 14 155
1.927057 0.272293 -8.368149 80 86 100
5.827028 6.776989 -2.094646 87 94 110
5.454404 6.171103 -2.612860 0 0 0
5.463192 6.153374 -2.524643 0 0 0
2.466596 0.445895 -8.251900 112 118 132
6.141531 6.383275 -2.411105 93 98 117
2.373823 0.024844 -8.490428 91 95 107
2.661854 0.158492 -8.350599 93 101 114
6.619167 6.558215 -2.174342 144 152 171
2.941936 0.003859 -8.541845 98 108 120
3.004831 -0.263299 -8.745537 141 142 155
0.696129 2.827634 -1.520392 165 182 212
2.988844 -0.419413 -8.932528 140 146 160
2.988844 -0.419413 -8.932528 140 146 160
3.328453 -0.486219 -8.947835 123 127 140
0.742398 2.053004 -2.435060 91 62 118
0.741216 2.052460 -2.434040 91 62 118
1.259962 3.130902 -1.249732 188 206 239
0.963520 2.261925 -2.218042 182 178 187
0.963520 2.261925 -2.218042 182 178 187
8.372826 6.821867 -1.842754 97 100 113
0.956353 2.143044 -2.322485 97 64 109
1.377825 2.506745 -2.145303 118 104 155
5.073815 1.088759 -7.462723 88 96 108
1.195259 2.804168 -1.518043 225 249 255
1.134019 2.735074 -1.513974 229 253 255
1.426373 2.432072 -2.154398 66 30 91
0.883027 1.973760 -2.362116 171 158 219
4.009635 -0.951341 -9.242900 83 87 96
4.226837 -0.977238 -9.209093 86 90 102
7.375953 3.664620 -4.844123 72 81 90
4.843667 -0.604868 -9.046261 102 106 117
4.751420 -0.795102 -9.110421 90 94 105
0.970119 1.753785 -2.501082 210 227 165
1.042750 1.897081 -2.282345 184 181 179
9.197963 5.424356 -3.127224 117 123 139
8.137237 3.972218 -4.397480 112 118 132
5.093514 -1.223360 -9.567158 113 116 125
9.404054 5.808910 -2.641035 117 125 138
6.337012 0.025236 -8.686800 0 0 0
5.406852 -0.684614 -8.894826 82 86 97
1.269205 1.840326 -2.321700 225 250 189
7.560864 -0.147042 -9.962040 0 0 0
6.122397 -0.490197 -8.898574 123 126 143
6.463415 -0.563203 -8.839979 124 130 144
6.130585 -1.313122 -9.610795 128 135 148
8.458019 2.106776 -6.265832 90 94 103
6.126307 -1.411819 -9.581150 98 102 113
6.076287 -1.396204 -9.529933 98 102 113
6.310797 -1.288338 -9.451332 106 113 123
6.420791 -1.569812 -9.858930 128 134 146
6.359393 -1.635454 -9.885685 79 86 96
8.211479 1.478588 -6.671877 0 0 0
7.757028 0.040385 -8.174674 118 122 134
6.679775 -2.081753 -10.324422 68 73 79
11.934832 6.160550 -2.248461 127 129 142
6.837611 -1.759533 -9.927068 124 126 138
6.775355 -2.160144 -10.395964 143 147 159
7.609450 -0.953602 -9.211470 36 36 34
7.609450 -0.953602 -9.211470 36 36 34
9.613721 1.908326 -6.445260 95 103 114
10.470954 3.592431 -4.563723 0 0 0
7.771030 -1.020185 -9.201159 133 139 155
7.847372 -1.037332 -9.264243 133 139 155
6.674184 -2.384818 -10.402705 110 110 121
6.592575 -2.356705 -10.312870 110 110 121
6.996152 -2.752496 -10.912430 125 127 140
7.283952 -2.503597 -10.720329 120 126 138
8.123361 -1.167006 -9.341631 98 105 115
9.633845 1.060776 -7.052341 109 112 127
8.931966 -0.452224 -8.610337 114 118 128
8.352637 -1.508293 -9.635068 106 113 122
8.542151 -1.729554 -9.944681 90 97 107
8.561942 -1.589204 -9.753633 98 102 113
9.932964 0.672561 -7.308017 97 102 116
8.599800 -2.392476 -10.489873 146 148 160
9.107226 -2.433590 -10.459496 90 95 101
10.820553 0.095268 -7.959259 95 98 107
9.051464 -3.117173 -11.119409 115 124 132
9.449006 -2.768835 -10.804568 128 131 140
9.710466 -2.960730 -10.929674 116 116 124
10.606119 -1.758210 -9.707528 60 60 62
10.323093 -3.119215 -11.014524 116 123 133
11.031869 -2.375184 -10.343265 118 119 131
11.539271 -1.378961 -9.293905 119 126 134
0.289814 6.609139 -2.626554 98 103 123
-1.309458 3.578236 -5.536915 136 141 159
-1.144075 3.811459 -5.297428 122 129 147
-1.373576 3.331701 -5.795583 79 82 99
-1.378041 3.327674 -5.781518 79 82 99
0.284595 6.308599 -2.828658 119 127 140
0.182399 5.942165 -3.196709 157 163 179
-1.407562 3.049123 -6.059410 120 119 129
-1.025922 3.716322 -5.374440 112 117 136
-1.544252 2.754068 -6.338472 76 79 96
-1.180888 3.369656 -5.739369 126 133 149
0.065179 5.611639 -3.515370 85 89 101
0.376830 6.169293 -2.954158 119 127 146
-0.052132 5.321276 -3.799088 104 111 127
0.776657 6.836583 -2.165811 41 40 48
-0.965355 3.636338 -5.451123 108 113 132
-0.050462 5.289253 -3.801955 105 111 125
0.382101 6.007525 -3.124761 80 86 102
0.569342 6.323457 -2.784446 136 144 162
-0.974981 3.539620 -5.547743 86 93 111
-0.101832 5.035203 -4.144500 122 125 142
-0.695287 3.939054 -5.214724 78 85 95
-0.006394 5.178790 -3.948413 119 125 139
-0.032685 5.104934 -4.015012 85 91 107
0.971957 6.879525 -2.283260 73 79 94
-1.201148 2.979121 -6.080342 97 100 117
0.040590 5.114629 -3.996093 107 113 126
0.371548 5.601244 -3.511853 99 105 121
-1.019151 3.063086 -5.998067 118 124 140
0.145694 5.137334 -3.965867 105 108 123
0.148965 5.070690 -4.094463 92 98 112
0.123997 5.046104 -4.062205 92 98 112
0.117315 4.967031 -4.121462 103 106 121
0.239766 5.155952 -3.945354 112 115 130
0.229670 5.095795 -3.999033 109 112 127
0.109733 4.868665 -4.225089 79 85 97
-0.834442 3.077333 -5.979412 119 122 139
0.195410 4.879119 -4.205945 73 77 89
0.639526 5.667651 -3.437340 105 111 127
0.640441 5.659108 -3.440958 105 111 127
0.510090 5.396178 -3.700901 102 108 120
1.410887 6.876703 -2.232053 120 127 146
0.946933 6.021177 -3.080583 126 133 151
0.278174 4.568839 -4.403114 124 133 140
0.250736 4.503397 -4.388237 130 135 138
1.375578 6.380975 -2.704903 101 106 128
1.839694 7.103432 -2.007695 142 147 167
-0.057035 4.064136 -4.176866 70 63 50
1.320762 6.144204 -2.912780 135 142 161
1.866669 7.102273 -1.956630 118 123 142
1.378273 6.208020 -2.867867 148 153 173
1.422136 6.283202 -2.777727 81 89 110
1.113213 5.709904 -3.356815 105 111 127
1.442700 6.294928 -2.766219 162 168 191
1.430842 6.107594 -2.960723 153 158 178
1.937225 6.872975 -2.207849 113 118 137
1.462448 5.901319 -3.138929 90 93 108
1.611535 6.127251 -2.928920 98 103 123
1.461780 5.842693 -3.194420 87 93 109
1.085173 5.093276 -3.937126 87 89 101
1.438393 5.677991 -3.365686 96 102 117
-0.346405 2.454657 -6.524029 119 122 141
1.096111 4.949271 -4.070930 91 95 104
1.434652 5.432887 -3.601451 99 105 121
1.553015 5.594879 -3.415495 79 86 102
1.675241 5.776163 -3.241387 76 81 100
0.154083 2.873636 -6.085954 110 119 136
1.793849 5.691254 -3.318816 144 151 170
2.622793 6.964911 -2.066181 178 184 210
1.862518 5.537067 -3.462499 92 98 114
1.320608 4.577814 -4.394192 111 115 127
1.858635 5.490677 -3.513094 130 136 152
1.502728 4.859684 -4.104524 107 114 124
2.658420 6.877979 -2.114447 117 124 143
2.893931 6.985404 -2.033383 122 125 144
2.893931 6.985404 -2.033383 122 125 144
2.013660 5.426502 -3.557781 131 138 154
1.768141 4.988510 -3.993240 123 133 145
0.958676 3.535387 -5.397724 73 81 94
2.963300 7.047963 -1.967102 142 148 165
1.894965 5.035466 -3.936727 108 114 128
3.125993 7.074735 -1.978435 161 166 188
3.215773 7.134098 -1.983169 116 121 143
2.969335 6.703486 -2.304225 143 150 169
-0.975317 2.862945 -1.933042 168 159 211
2.983428 6.567004 -2.430583 111 116 135
1.959350 4.764334 -4.160159 106 114 127
-0.953891 2.769861 -2.092169 147 109 192
2.176088 5.121142 -3.854505 124 130 146
2.184856 5.001578 -3.958982 133 136 151
2.334482 5.027397 -3.939737 89 96 114
3.167156 6.504830 -2.473707 139 145 161
3.291134 6.646892 -2.268897 136 141 161
-1.112349 2.553132 -1.933280 193 157 254
3.357371 6.667592 -2.309648 145 150 170
3.213517 6.221261 -2.736981 151 161 179
1.563610 3.123914 -5.999794 0 0 0
3.343260 6.381224 -2.599347 99 107 120
3.572620 6.658343 -2.309328 140 147 166
3.474575 6.340525 -2.620464 144 149 171
3.862259 7.008663 -1.984433 99 106 123
3.456845 6.280179 -2.663572 138 143 160
3.409882 6.095676 -2.857023 129 134 147
3.409400 6.095349 -2.857059 129 134 147
-0.360711 3.179911 -1.707967 32 35 65
3.863846 6.661780 -2.340818 101 106 125
0.564027 3.782830 -2.078240 54 76 37
3.432641 5.868243 -3.060317 135 144 164
3.673298 6.286663 -2.643824 130 139 156
3.675606 6.289893 -2.645333 130 139 156
3.416930 5.749854 -3.176520 99 108 123
3.711586 6.261141 -2.652810 107 115 134
3.928816 6.595388 -2.327532 125 133 154
1.770542 2.813735 -6.033710 97 104 116
3.559629 5.821889 -3.083392 136 145 160
3.805315 6.175371 -2.755754 95 102 121
0.930837 1.199771 -7.534445 94 97 112
3.823370 5.944027 -2.976524 108 114 130
3.922922 5.934174 -2.962869 119 127 146
1.924353 2.414050 -6.414451 0 0 0
3.800793 5.584413 -3.348593 92 98 114
3.812527 5.556473 -3.334817 123 132 147
4.262475 6.295282 -2.584523 131 146 171
4.467450 6.640778 -2.247334 102 108 126
3.989964 5.703999 -3.176803 90 95 114
2.043473 2.257856 -6.558387 98 105 121
4.068470 5.767529 -3.091297 117 122 141
4.163909 5.804053 -3.100465 87 95 108
4.183015 5.824148 -3.021510 82 89 104
-0.370526 2.742552 -1.725415 59 65 101
-0.832351 2.265832 -1.847696 93 92 235
-0.290516 2.721231 -1.724037 182 146 231
5.052535 6.629099 -2.258801 108 115 133
-0.192424 2.605604 -1.914073 44 34 36
4.993500 6.003531 -2.822585 103 110 126
5.090824 6.128657 -2.646464 107 113 129
5.477069 6.644367 -2.126777 0 0 0
2.150888 0.775333 -7.978258 89 95 109
5.563700 6.601002 -2.166498 102 111 128
2.248633 0.875660 -7.766413 76 83 99
1.901013 0.142681 -8.476837 81 88 98
5.915088 6.803892 -2.051086 85 93 106
5.524742 6.085150 -2.687809 107 118 138
-0.439006 1.725149 -2.750938 209 192 224
-0.439006 1.725149 -2.750938 209 192 224
6.730025 7.042634 -1.736736 135 140 159
6.277679 6.180019 -2.156293 0 0 0
6.035704 5.259826 -3.492643 57 66 75
6.044726 5.153062 -3.549009 71 76 82
6.716056 6.321511 -2.361143 103 112 129
2.996270 -0.471552 -8.985950 145 148 160
3.005436 -0.465491 -8.940430 83 86 97
7.047578 6.034881 -2.706212 122 133 151
7.291779 5.939318 -2.751074 102 112 128
7.759931 6.659922 -1.958818 112 119 138
0.767539 2.029939 -2.424175 85 56 111
1.362535 2.500597 -2.181657 99 77 123
4.131532 -0.639262 -9.307550 117 121 132
0.979933 2.223194 -2.205379 27 30 30
8.198599 6.212389 -2.397240 89 96 112
8.307544 6.301469 -2.267949 94 103 118
0.895283 1.952077 -2.339080 162 134 208
4.044470 -1.058156 -9.334095 132 135 149
4.862781 -0.176993 -8.697681 0 0 0
0.440830 1.638058 -2.427615 163 208 58
9.067314 6.584088 -2.008911 121 133 149
4.624207 -1.085218 -9.642927 115 123 133
4.266248 -0.949972 -9.132004 89 93 104
1.036389 2.038772 -2.205081 123 67 138
8.867529 5.630450 -3.086829 97 103 117
1.069165 1.706502 -2.636784 153 190 96
9.036339 5.769948 -2.799243 79 85 97
1.083242 1.680023 -2.619028 168 205 99
8.985725 5.574020 -2.885983 0 0 0
10.198014 6.893219 -1.618850 42 46 56
9.654949 5.849428 -2.635296 99 103 115
